# .PCD v0.7 - Point Cloud Data file format
VERSION 0.7
FIELDS x y z rgba
SIZE 4 4 4 4
TYPE F F F U
COUNT 1 1 1 1
WIDTH 1118
HEIGHT 1
VIEWPOINT 0 0 0 1 0 0 0
POINTS 1118
DATA ascii
-0.012397729 4.1751904 0.81488901 4290823366
0.063634731 4.227653 0.80105668 4290823367
-2.7951465 3.0128677 0.75051749 4288914340
-2.6663241 3.0708048 0.77277243 4288782495
-2.6410232 3.1073816 0.80305094 4286743941
-2.5083635 3.1690245 0.76896811 4286874498
-2.4258256 3.1780488 0.7727651 4287925917
-2.3337519 3.2173307 0.7665199 4286677631
-2.2847328 3.2621291 0.76455969 4286546560
-1.9473127 3.3802586 0.79569787 4290954685
-1.8400315 3.4130266 0.79060137 4291086270
-1.680735 3.5168853 0.78730172 4291086525
-1.6009176 3.5394671 0.77920628 4291086525
-1.5057564 3.5726449 0.77718592 4291152318
-1.4067818 3.5863245 0.76856828 4291152318
-1.3183638 3.6368883 0.76881158 4291152318
-1.2439975 3.6361396 0.75782555 4291152318
-1.1273373 3.6919434 0.73674983 4291283905
-1.036204 3.7424767 0.75911427 4291152064
-0.86587697 3.8494892 0.71141225 4291283395
-0.74989712 3.855983 0.71364254 4291283395
-0.66912645 3.9213736 0.7290498 4291217602
-0.4279747 3.9719765 0.72027302 4291019971
-0.44066072 4.0252571 0.70040661 4291019971
-0.27510527 4.0432959 0.69215417 4290823364
-0.21874668 4.0972157 0.69766182 4290954693
-0.10989818 4.1449862 0.69768506 4291086280
-0.058374763 4.2035365 0.67340517 4291086282
0.075739495 4.2570014 0.71766174 4291020233
0.14963686 4.2899656 0.68499696 4291086026
0.22490934 4.319881 0.66618502 4291086027
-2.7926202 3.0086505 0.67638761 4289243304
-2.682303 3.0760274 0.6699425 4288190872
-2.5087004 3.1624699 0.67119855 4286217850
-2.4351177 3.1821504 0.67473823 4285755530
-2.3114505 3.2005711 0.67038274 4286676598
-2.2548046 3.2423742 0.65546304 4287795592
-1.7635553 3.4761353 0.617814 4291481026
-1.6793997 3.4717724 0.60983187 4291612355
-1.6101569 3.4959774 0.60729295 4291678148
-0.93530512 3.840174 0.60818756 4291677894
-0.87080872 3.8451972 0.61491168 4291546309
-0.77711344 3.8787389 0.59075069 4291611846
-0.53819913 3.9598544 0.57256126 4291283141
-0.48922777 3.9831145 0.59234935 4291217348
-0.40646046 4.0075293 0.61191946 4291020228
-0.29679206 4.0452871 0.61385518 4290954692
-0.23265213 4.0973721 0.63986498 4290954949
-0.083998904 4.1745286 0.56433368 4291217868
-0.034999389 4.1718245 0.609321 4291152074
0.052045178 4.2160444 0.60683358 4291217612
0.23872471 4.3034606 0.62702161 4291151821
-2.68663 3.0650411 0.56706172 4287927187
-2.6182811 3.1211782 0.55575842 4284967528
-2.5372431 3.1682444 0.57894731 4286546044
-2.4504945 3.1859698 0.56731325 4284046682
-2.3240716 3.2145166 0.54914403 4289703079
-2.2523253 3.2552497 0.56507707 4292070074
-2.1332517 3.3211761 0.54132122 4292990659
-2.0525222 3.3245461 0.55654883 4291281327
-1.9952797 3.3917363 0.54405743 4288912522
-1.8791564 3.4207654 0.53196132 4291541657
-1.7819226 3.4768229 0.54708403 4289439664
-1.6919737 3.4954329 0.57734573 4291546307
-1.6295292 3.5266397 0.57827538 4291743942
-0.83873659 3.8503795 0.49961227 4291875273
-0.77651769 3.883791 0.52395606 4291809225
-0.56253016 3.9997635 0.55247647 4291348934
-0.49892831 3.9918702 0.54606634 4291283141
-0.42055297 4.0176501 0.51970899 4290229941
-0.2797634 4.0604215 0.53173286 4289112742
-0.20741673 4.1272469 0.49826959 4284242265
-0.12547073 4.1443181 0.50573194 4290230971
-0.038922388 4.1660886 0.49753684 4291152074
0.082898565 4.2189579 0.51964778 4291414734
0.1165159 4.2626042 0.49802721 4291480014
0.24449582 4.3178282 0.47889668 4291480528
-2.6765118 3.0644286 0.47687173 4286414460
-2.6266139 3.1245589 0.48446864 4284572767
-2.5607762 3.1662617 0.456626 4286808185
-2.4401255 3.2153339 0.51752448 4283455064
-2.3379052 3.2304962 0.4711577 4284047977
-2.289192 3.2407391 0.47920391 4286218119
-2.1294959 3.3216951 0.50672883 4289504925
-2.0626347 3.3347368 0.49628145 4289112746
-1.9390179 3.4030397 0.4797678 4288719789
-1.8752818 3.4044104 0.46702388 4289704883
-1.7854941 3.4584866 0.47657526 4290166724
-1.709859 3.5088015 0.4628098 4289771709
-1.6580822 3.5464549 0.4605538 4289706167
-1.3097101 3.6470242 0.40075478 4292204752
-1.2363377 3.664252 0.41590089 4292335824
-1.1493219 3.7195988 0.41328153 4292532689
-1.0642425 3.7995703 0.389945 4292401103
-0.96208948 3.8058162 0.38387519 4291743944
-0.88147289 3.8698704 0.41064036 4292072396
-0.59322327 3.9790101 0.37612033 4285361260
-0.4943257 4.0188937 0.38451058 4285624172
-0.41560817 4.0127211 0.41418451 4282465592
-0.17287171 4.1047845 0.43368033 4280886563
-0.13115625 4.148602 0.42065525 4286217086
-0.028348656 4.2014556 0.39697811 4290757061
0.038082458 4.2408519 0.39215577 4291545806
0.12895535 4.2709031 0.39830685 4291808722
0.21696442 4.302516 0.42477208 4291742929
-2.7034225 3.0781395 0.37198064 4286479739
-2.6031566 3.1544373 0.39708292 4284900960
-2.5812564 3.1627955 0.41036829 4287267970
-2.0904398 3.3737237 0.32393801 4289833885
-1.9610355 3.4207838 0.34090251 4289965473
-1.9127309 3.4337552 0.3553085 4289439386
-1.312758 3.6713631 0.37563047 4291285197
-1.2397276 3.6835234 0.36105001 4290562252
-1.1355541 3.7371612 0.33486477 4288720052
-1.0562555 3.7649448 0.32864562 4288982707
-0.96398962 3.7873592 0.33846089 4286546583
-0.87904012 3.8629603 0.35147089 4291677387
-0.78608561 3.9046495 0.3223398 4289375417
-0.69405717 3.941227 0.31361601 4289901248
-0.61193627 3.9498544 0.32870972 4288390061
-0.4872674 3.9939682 0.31458148 4282467395
-0.42244694 4.0241208 0.31145695 4279965716
0.0074779121 4.1779261 0.3374407 4291217613
0.055969037 4.2355981 0.33034894 4291743186
0.09263128 4.2623339 0.33960617 4292071636
-2.707936 3.0796242 0.27160954 4286413689
-2.6148601 3.1251199 0.23242667 4285426790
-2.537297 3.1500285 0.23744847 4286940282
-2.1687107 3.322926 0.25648147 4290031265
-2.0728629 3.3500779 0.28326103 4290162850
-1.9906683 3.3974683 0.27268103 4290623658
-1.9331574 3.4098468 0.20750746 4290952880
-1.3520041 3.684535 0.19857663 4290163365
-0.95270473 3.8159029 0.18210068 4289637282
-0.87530595 3.8566279 0.20417543 4288519831
-0.827043 3.9031124 0.18656722 4288979868
-0.69619298 3.9328861 0.22507438 4286350219
-0.6152668 3.963491 0.23919974 4285827230
-0.50654894 4.0168753 0.21847565 4284247161
-0.43637428 4.0448422 0.23622502 4281943637
-2.7894177 3.0548477 0.14709583 4290096292
-2.7244954 3.0890837 0.19336908 4286479481
-2.6606841 3.1233523 0.17794284 4284834912
-2.4459479 3.2017469 0.16437681 4285493612
-2.3362081 3.2805886 0.16407707 4290229159
-2.2767651 3.2749684 0.15933304 4290952881
-2.1928236 3.2649479 0.19440807 4290426536
-1.8874429 3.4250574 0.13909182 4293119931
-1.8608134 3.4827626 0.11496668 4294630335
-1.4321723 3.6358631 0.14367342 4290491815
-1.3432386 3.6615787 0.13877366 4290360743
-1.2617165 3.7336922 0.11576456 4290426537
-1.2134441 3.7549837 0.098372675 4290558124
-1.0018857 3.8044863 0.13244769 4290097831
-0.82297444 3.8437595 0.11396911 4289900198
-0.81858402 3.8977828 0.13068302 4289637283
-0.60226154 3.9939942 0.090241179 4288979098
-0.52102226 4.0113254 0.10469554 4288584084
-0.3724629 4.0348721 0.075225763 4288584084
-0.32983291 4.07407 0.081413575 4288386964
-0.25231212 4.1097903 0.077210478 4288190356
-2.7883506 3.0618749 0.073889486 4288780947
-2.7156794 3.118937 0.072213143 4285163618
-2.673285 3.1063514 0.061804101 4285163618
-2.446703 3.2150741 0.074399427 4284899407
-2.2967486 3.2855234 0.052364256 4285686096
-1.8038282 3.4741786 0.063900605 4293381814
-1.7095684 3.500741 0.055308387 4293972407
-1.5917341 3.5368719 0.070375383 4293445038
-1.5441905 3.6098535 0.069821686 4292854445
-1.4611373 3.5948386 0.079235539 4291803812
-1.3286656 3.676688 0.074509084 4290558121
-1.2454104 3.7049537 0.049578603 4290294950
-1.1728187 3.7598062 0.028822357 4290558121
-1.069046 3.7738039 0.0024856997 4291018673
-0.97802442 3.8238251 0.014592621 4290952881
-0.88337404 3.8589213 0.0033061991 4291478969
-0.80754644 3.9256628 0.018074036 4289768610
-0.7555632 3.9473341 0.021984279 4289571232
-0.60541672 3.9790139 0.016636031 4289439389
-0.51440918 3.9814401 0.010911207 4289176476
-0.40651494 4.0540743 -0.0025573953 4289044635
-0.33997163 4.1033206 0.029016847 4288715928
-0.27767301 4.1501803 0.046692621 4288518807
-2.7868974 3.0643387 0.0098359771 4287728516
-2.7479849 3.0957944 -0.03530696 4285755497
-2.6711113 3.1033299 -0.038553182 4284703324
-2.4486651 3.2122176 -0.039990723 4286017627
-2.366827 3.2437887 -0.046645515 4286017887
-2.3083961 3.2547317 -0.029610537 4285820509
-1.1524684 3.7575376 -0.039978273 4287597174
-1.0843189 3.7437792 -0.040691182 4288649349
-0.99285191 3.8037016 -0.046403266 4290623914
-0.90219599 3.8854759 -0.038758866 4291676348
-0.80392188 3.9312241 -0.093910851 4289505437
-0.6134696 4.0089688 -0.046180483 4290097319
-0.52335852 4.0146189 -0.050805788 4289834147
-0.46685359 4.0518775 -0.049752451 4289571234
-0.3108477 4.1148739 -0.10708835 4290031787
-0.26459125 4.1293855 -0.087686442 4289505701
-2.7934179 3.0732102 -0.14010289 4286347121
-2.7539494 3.0991576 -0.13316292 4284900445
-2.6755202 3.0820274 -0.11956369 4284571481
-0.42566422 4.1044011 -0.2172173 4282075723
-0.35237527 4.1023841 -0.18695454 4284767572
-2.7441216 3.0759816 -0.22531034 4284242774
-0.38971758 4.0738602 -0.27040294 4283452225
-0.39101553 4.0961719 -0.25354633 4283386173
-2.7495718 3.0609159 -0.28083786 4283650381
-2.8019638 3.0580459 -0.45581019 4282334257
-2.7740467 3.0697851 -0.4565258 4282071088
-2.8206344 3.0734196 -0.5004521 4282004782
-2.7757568 3.0731249 -0.49543852 4282005040
-2.5445325 3.2005863 1.7245128 4286085506
-2.439748 3.2446487 1.7218269 4283388759
-2.3087673 3.2997262 1.7184695 4285165171
-2.1341267 3.3731632 1.713993 4288979618
-2.0817344 3.3951945 1.7126499 4289374120
-1.959486 3.4466002 1.7095163 4289703081
-1.723721 3.5457404 1.703473 4289638061
-1.3133154 3.7183173 1.6929531 4289440684
-1.1648707 3.7807386 1.6891479 4289243818
-0.78939319 3.9386282 1.6795235 4289112492
-0.63221657 4.0047216 1.6754944 4289308584
-0.24800695 4.1662827 1.6656461 4288190881
-2.6825986 3.0929146 1.651847 4288520358
-2.5933659 3.1054943 1.6666873 4288847527
-2.5340011 3.1673696 1.6703746 4286217347
-2.4047098 3.2434433 1.6692936 4284310372
-2.3275661 3.2495008 1.6603861 4284508267
-2.1362002 3.3644316 1.6563959 4288980647
-2.066952 3.3921719 1.6929681 4289308841
-1.9638005 3.4344008 1.6665721 4289703338
-1.8658854 3.4697011 1.6384591 4289704111
-1.7840176 3.5037467 1.6364822 4289769648
-1.730217 3.5480487 1.621626 4289901234
-1.5740764 3.592247 1.6335907 4289638063
-1.4915067 3.6172016 1.6288272 4289441454
-1.4302912 3.6581621 1.6269996 4289506990
-1.3021498 3.7001436 1.6406943 4289375661
-1.2146881 3.7321494 1.6508658 4289244332
-1.1519934 3.7792275 1.6601539 4289244588
-0.83220494 3.8954926 1.6124879 4289310125
-0.7806077 3.8922417 1.6460266 4289046953
-0.63976979 3.9341302 1.6417495 4289046183
-0.59072894 3.989109 1.6186247 4289046699
-0.38178545 4.0856128 1.58926 4288717735
-0.29947451 4.1359854 1.5957457 4288585893
-0.21547128 4.1449432 1.5985254 4288257442
-0.066483751 4.1697683 1.5740538 4288060063
1.022966e-06 4.2073755 1.5920271 4287994014
0.066840574 4.2622943 1.604251 4287928220
0.14985292 4.322701 1.6053289 4287862426
0.25211352 4.349782 1.6224663 4287467672
0.30111769 4.3910007 1.5932703 4287402135
-2.7009442 3.0873919 1.6048803 4288389030
-2.5901515 3.1359465 1.5565883 4287665818
-2.5345678 3.1663306 1.607682 4286020737
-2.4104049 3.2435172 1.5727141 4284574058
-2.3394094 3.2557256 1.5682119 4284771695
-1.9524803 3.4275839 1.5577888 4289901233
-1.8668731 3.4496143 1.5496345 4289901489
-1.787866 3.5016649 1.5592968 4289901746
-1.6974694 3.5480137 1.5061516 4289836722
-1.6359423 3.5942822 1.5119612 4289902260
-1.4898877 3.5723641 1.5919653 4289703855
-1.3881359 3.6938334 1.5813138 4289573296
-1.3444756 3.7121928 1.5801947 4289507504
-0.81820208 3.8808398 1.5752798 4289375664
-0.76685357 3.9060681 1.5148003 4289442225
-0.68408149 3.9259663 1.5007985 4289507762
-0.58126944 3.9972372 1.5084312 4289441714
-0.39624727 4.0853853 1.5473938 4288849833
-0.33234435 4.1181202 1.535157 4288850091
-0.19182838 4.160605 1.5048451 4288784042
-0.1018631 4.1651053 1.5299361 4288389028
-0.0095111001 4.2059774 1.536345 4288257187
0.077351697 4.2615499 1.5205294 4288322722
0.12039561 4.324419 1.4977534 4288389028
0.28841504 4.3988285 1.5383389 4287731868
-2.5914001 3.1501296 1.4721136 4287336852
-2.5033376 3.2246773 1.4436756 4284376166
-2.423208 3.2227199 1.4679354 4284508521
-2.3408964 3.249243 1.4727287 4284640108
-2.2163935 3.3560159 1.432209 4288850088
-2.1513288 3.3516555 1.4283576 4289638832
-2.1116092 3.4000781 1.4295231 4290033074
-1.951123 3.4629107 1.501114 4290033074
-1.8745046 3.4634056 1.4555503 4289968051
-1.8006128 3.450835 1.451333 4289968308
-1.6583985 3.509495 1.4662623 4289902515
-1.6121882 3.572716 1.4492624 4289968308
-0.83853048 3.9256299 1.4348919 4289771446
-0.80079877 3.900758 1.4169207 4289836982
-0.57477349 4.0031314 1.4568036 4289507764
-0.49947941 4.0445738 1.4229406 4289507763
-0.39559132 4.0817847 1.3983985 4289573557
-0.30763742 4.1072311 1.4122497 4289441971
0.10455077 4.2542453 1.3653489 4289047219
0.16177151 4.3045878 1.3906211 4288915374
0.24753396 4.3567276 1.4028239 4288717739
0.29478946 4.4038568 1.3939503 4288783275
-2.6426673 3.10588 1.3243207 4289902262
-2.5104578 3.1750841 1.3693609 4285100403
-2.4184229 3.2120214 1.3643855 4285100658
-2.3645937 3.282625 1.3655699 4285429627
-2.241533 3.3500969 1.3571488 4288784296
-2.1527932 3.3489029 1.3807008 4289705139
-2.0716975 3.4149289 1.3656917 4290099380
-2.006464 3.4365976 1.3399805 4290230965
-1.8766716 3.5000334 1.4045745 4290034355
-1.7806128 3.4993708 1.3810219 4290165686
-1.6975522 3.5500035 1.3412629 4290231479
-1.6068069 3.5667517 1.3472314 4290165687
-1.5221366 3.6314023 1.3303159 4290231223
-1.4442066 3.6877015 1.2988584 4290231735
-1.3385948 3.7309487 1.3150774 4290231480
-1.248988 3.7602997 1.306939 4290231480
-1.1379808 3.7765205 1.3049406 4290231480
-1.051439 3.8162968 1.3183242 4290231480
-1.0100219 3.8598201 1.316527 4290231480
-0.83146173 3.9209659 1.3408645 4290099897
-0.80178279 3.9182167 1.3146087 4290165690
-0.49042162 4.0091944 1.2970142 4289836984
-0.29660395 4.1184936 1.3136967 4289771191
-0.22605829 4.156105 1.344728 4289639349
-0.11497056 4.1963782 1.3344129 4289507765
-0.072232462 4.2293682 1.2718683 4289639350
0.068579651 4.2756205 1.2812375 4289638838
0.14992082 4.3063755 1.3013562 4289375668
0.22435683 4.3604827 1.3015338 4289244339
-2.6211717 3.1291919 1.261153 4288191646
-2.5179858 3.1782124 1.2658637 4284968560
-2.4209192 3.2197993 1.2649727 4285298037
-2.3724735 3.2947836 1.2737354 4285824384
-2.2518435 3.3500261 1.2880169 4288915882
-2.1957569 3.3610115 1.2795506 4289902515
-2.0429268 3.4103634 1.3062613 4290296500
-2.0082147 3.4249599 1.3053715 4290362293
-1.8774003 3.471262 1.2457629 4290428343
-1.7666751 3.5011816 1.2875209 4290297273
-1.6934073 3.5288818 1.2591326 4290297527
-1.6020036 3.5622661 1.2464535 4290362808
-1.5160955 3.6360612 1.244274 4290362807
-1.4279082 3.6541619 1.225334 4290428599
-1.3286725 3.7030587 1.2464952 4290363064
-1.2381965 3.7440958 1.2498541 4290297528
-1.1473688 3.7863972 1.1980226 4290428858
-1.0614272 3.8179319 1.231058 4290363065
-0.96892649 3.8896515 1.2526084 4290297273
-0.75005215 3.9503019 1.2488208 4290297275
-0.6991567 3.9746885 1.2307518 4290231739
-0.59590638 4.0005965 1.2126267 4290231483
-0.52197838 4.042038 1.183599 4290165947
-0.30763039 4.0978174 1.2423487 4289902776
-0.23090711 4.1628017 1.2027057 4290034106
-0.12731138 4.2325335 1.1747433 4290034108
-0.038495053 4.2450795 1.2179183 4289836473
0.040059682 4.2987485 1.1981754 4289902522
0.12022503 4.3092079 1.2139839 4289836217
0.26679328 4.3649416 1.2355294 4289638839
0.28817952 4.3838277 1.187091 4289704632
-2.781965 3.0668852 1.1506332 4288717478
-2.5961204 3.132302 1.2116798 4287205006
-2.5305386 3.1939406 1.180813 4284836972
-2.4333525 3.2297025 1.174577 4285298293
-2.3897829 3.2905879 1.1735181 4286153092
-2.2379498 3.3649793 1.1394057 4289902515
-2.2034354 3.3800743 1.129058 4290165687
-1.8574024 3.4848394 1.1894234 4290625465
-1.7867165 3.4981279 1.1452731 4290625722
-1.7185084 3.5551186 1.1622864 4290625721
-1.6072551 3.5943084 1.1539078 4290625464
-1.5202603 3.6301696 1.1619928 4290625464
-1.4347749 3.6646199 1.1450036 4290625720
-1.3366617 3.705276 1.1098479 4290757306
-1.2484702 3.7553613 1.1080986 4290822843
-1.1572803 3.8022904 1.1202995 4290691515
-1.0928438 3.8263948 1.1191394 4290625722
-0.88067836 3.9157805 1.089734 4290494652
-0.78954989 3.9715161 1.1432856 4290494652
-0.74187589 3.9900124 1.1672986 4290428859
-0.47854406 4.0492234 1.1507101 4290165947
-0.42968699 4.0821066 1.1077216 4290297277
-0.22667766 4.1685338 1.1189736 4290165693
-0.12672798 4.2182269 1.1170168 4290099901
-0.045920219 4.2486959 1.0995406 4290165694
0.050429571 4.2842999 1.1132077 4290099645
0.2612347 4.3489227 1.1048793 4290033340
0.28627279 4.4112811 1.1090515 4290164925
-2.5303977 3.1892753 1.068984 4284836971
-2.4386845 3.2097013 1.0784539 4285166449
-2.3816211 3.2758601 1.0704275 4287138960
-2.2396045 3.3666096 1.1015959 4289967794
-2.168884 3.3656659 1.0689226 4290428087
-1.9806458 3.4688351 1.0338122 4290823099
-1.8917553 3.4724512 1.0437448 4290823099
-1.7843865 3.5011818 1.0669907 4290823099
-1.7180258 3.5672615 1.056336 4290823099
-1.6129422 3.5909445 1.0547748 4290757306
-1.5311793 3.6244402 1.0434271 4290757306
-1.455883 3.6231902 0.99670607 4290823099
-1.3151116 3.6772485 1.0766834 4290757306
-1.2298193 3.713685 1.0652099 4290823099
-1.131331 3.7676554 1.0280106 4290822844
-1.0661765 3.8206263 1.0464231 4290692028
-0.93853122 3.9137151 1.0682454 4290691773
-0.87433285 3.891125 1.0252687 4290757309
-0.78622556 3.9250233 1.031873 4290626238
-0.69988644 3.9856472 1.0398862 4290626238
-0.59731245 4.0280323 1.0393125 4290560190
-0.54141337 4.0612497 1.0212305 4290560190
-0.39489466 4.1041374 1.0158552 4290429119
-0.2691862 4.1164927 1.0591606 4290297534
-0.21004044 4.1636047 1.0138042 4290429122
-0.12886307 4.2202258 1.0024559 4290494658
-0.044099368 4.2399306 1.0090438 4290494402
0.04907329 4.3034735 1.0343121 4290362817
0.13806419 4.3339238 0.9957729 4290494146
0.22261867 4.3733768 0.97383344 4290625731
-2.6263731 3.1605747 0.94453573 4286152320
-2.5440774 3.1876724 0.97079647 4284771178
-2.3600719 3.2786791 0.95939344 4287731097
-2.2630801 3.3367929 0.97001815 4289638831
-2.2093749 3.3360472 0.95678538 4290428344
-2.0639443 3.4237216 0.94562054 4290823099
-1.9904233 3.4341917 0.99369502 4290823099
-1.8737792 3.4609153 0.97701579 4290888892
-1.7992462 3.4901388 0.95156991 4290954685
-1.7159635 3.558404 0.9747085 4290888892
-1.6235566 3.6077828 0.976161 4290888892
-1.5269389 3.6452696 0.97296345 4290888891
-1.4313551 3.6522229 0.96412301 4290888892
-1.3709967 3.6600268 0.97595567 4290954685
-1.1474441 3.7810133 0.95526618 4290954685
-1.1064572 3.8378098 0.9466123 4290954430
-0.96766835 3.8585305 0.91939598 4290888637
-0.86913598 3.9075332 0.95274478 4290888637
-0.77118558 3.9234509 0.94141954 4290823103
-0.70992172 3.9871099 0.9234376 4290823359
-0.64331222 4.0120945 0.89673412 4290757823
-0.52419704 4.0619307 0.95079321 4290626238
-0.41509402 4.0986447 0.94868785 4290625984
-0.18835998 4.1573296 0.9456411 4290626499
-0.15076801 4.189908 0.93683231 4290626242
-0.016963383 4.2294021 0.94124776 4290823110
0.038096 4.296916 0.9389388 4290757317
0.12614171 4.3359365 0.91361386 4290691525
0.21407549 4.3974924 0.94728398 4290691525
0.27119127 4.4132209 0.90399188 4290691525
-2.6303 3.1537206 0.87482512 4286086268
-2.550185 3.1950097 0.87861925 4284967526
-2.4122093 3.2378101 0.88989025 4286545320
-2.3558288 3.2738485 0.88125491 4287862679
-2.2791901 3.3352339 0.84751689 4288651416
-2.2163196 3.3760915 0.82330459 4289113253
-2.040168 3.4117975 0.87762231 4290822842
-2.0275042 3.4371655 0.83389163 4290691513
-1.7804139 3.5160739 0.81016046 4291086526
-1.7440251 3.5268917 0.81150723 4291086270
-0.9804014 3.8825443 0.80534726 4291086016
-0.91395354 3.8911033 0.81611735 4291086016
-0.67671961 3.9798644 0.84357452 4291020225
-0.62211889 4.0307603 0.82581306 4290954433
-0.5154053 4.062501 0.82473075 4290823362
-0.46997732 4.1010785 0.7894085 4291019715
-0.092829965 4.2077732 0.77602088 4290954950
-0.065467097 4.2703304 0.79280168 4290954950
0.022031542 4.2945142 0.78369409 4290823367
0.12598439 4.3337545 0.7959736 4290888903
0.16717245 4.3955321 0.76547337 4290954696
0.27323389 4.4326525 0.7996276 4290889161
-2.6961348 3.1359782 0.75279152 4287270028
-2.6345842 3.1567433 0.77112365 4285428593
-2.564152 3.1792035 0.78758001 4284836198
-2.2736905 3.342905 0.76803237 4287203456
-2.1987596 3.3999395 0.76697654 4287994000
-2.1130557 3.4411612 0.75112933 4288585619
-2.0163317 3.4676683 0.76712322 4290099117
-1.9261987 3.4906566 0.79542643 4291086271
-1.8092655 3.5268521 0.79151857 4291152062
-1.7321043 3.5427847 0.77552873 4291086525
-1.034108 3.8347228 0.74786335 4291217857
-0.99145114 3.8928895 0.73221838 4291283650
-0.90332711 3.8774769 0.7104283 4291283651
-0.80010289 3.9334567 0.70109493 4291283396
-0.70621109 3.9898109 0.70686513 4291283395
-0.63573736 4.0194135 0.71841758 4291086018
-0.47158098 4.0981922 0.71941519 4291019970
-0.20053999 4.1693296 0.66733426 4291086536
-0.15981585 4.2167239 0.68265563 4291020743
-0.063921511 4.255487 0.69788945 4291086536
0.040922061 4.303968 0.70814836 4291086282
0.11828357 4.31146 0.70258093 4291020490
0.22344266 4.3744521 0.71456355 4291086282
0.25366548 4.4330654 0.74433005 4290954696
-2.8851452 3.0808711 0.71446061 4288586147
-2.8473852 3.0586057 0.69803154 4288848804
-2.6982682 3.141717 0.66506147 4286480513
-2.6431739 3.1740823 0.6806007 4284901735
-2.5714462 3.1809413 0.6732226 4284770404
-2.4837689 3.214361 0.64227444 4285229941
-2.2602625 3.3498144 0.67603821 4285757040
-2.1918371 3.4112833 0.67905998 4288059017
-2.0979617 3.4285779 0.66860497 4288190859
-2.0321367 3.4599404 0.66731995 4288124552
-1.892711 3.5291336 0.65205616 4290691513
-1.825199 3.539407 0.65802151 4291415233
-0.9496612 3.8652065 0.65078527 4291415236
-0.88958848 3.8814378 0.65481287 4291480516
-0.80753958 3.9631484 0.63846701 4291546310
-0.71739167 4.0098491 0.64032656 4291414726
-0.61514699 4.0458808 0.62087727 4291217604
-0.52756262 4.0714321 0.64793867 4291151556
-0.45844695 4.0620203 0.65537053 4290954949
-0.25017121 4.1890745 0.60145122 4290954949
-0.1569636 4.2438703 0.59964281 4291152329
-0.085392416 4.256249 0.62103957 4291152329
0.072070725 4.2862463 0.6231972 4291217613
0.11106826 4.3522692 0.62049234 4291152076
0.21129599 4.3836546 0.62337798 4291151820
0.25860274 4.432405 0.57667822 4291283150
-2.705204 3.1409488 0.61009139 4286217597
-2.6448965 3.1544008 0.60439289 4284638564
-2.5546541 3.1975782 0.5478211 4285887856
-2.484987 3.2155609 0.61444372 4284638822
-2.2772064 3.3535225 0.5545941 4291413178
-2.1998193 3.3763423 0.56196618 4291346610
-2.0413859 3.4049504 0.55663639 4288651157
-2.0032375 3.4374089 0.55637842 4289965207
-1.9121022 3.4892352 0.58842874 4291740585
-1.8359915 3.5014739 0.57463247 4291215018
-1.7196959 3.5535262 0.53279406 4289573304
-1.6629388 3.6105084 0.54189998 4291349444
-0.79800713 3.964385 0.49483868 4291875274
-0.74644637 3.9994657 0.55820894 4291677640
-0.61402225 4.0460792 0.53278285 4291480261
-0.54265732 4.0846338 0.51163954 4291414212
-0.46358058 4.0923419 0.49805775 4290822332
-0.25015175 4.1820207 0.54671824 4290494140
-0.17001937 4.2242346 0.54743427 4291152328
-0.052594431 4.2548614 0.46582347 4290823110
0.13430798 4.349143 0.50866938 4291480270
0.20908718 4.3990836 0.49218529 4291480270
0.25837407 4.396143 0.5290395 4291349199
-2.6668761 3.1490071 0.45750701 4284309082
-2.5445797 3.2185316 0.47333026 4284637787
-2.4689982 3.2687631 0.48139015 4282533443
-2.3790445 3.2760227 0.43761405 4283651154
-2.3024135 3.3446264 0.46567267 4286479737
-2.1992507 3.4013824 0.49275959 4285759631
-2.1004663 3.4180424 0.48612666 4286352800
-2.008163 3.4703419 0.47300139 4288062376
-1.9144049 3.4975557 0.43369055 4286614422
-1.8197645 3.5419157 0.44453269 4286880175
-1.7324232 3.5807219 0.43874812 4286945708
-1.6793231 3.6218505 0.46470106 4289443513
-1.3675178 3.7265897 0.42545414 4292138703
-1.3076968 3.7715442 0.44101062 4292204238
-1.1515992 3.8233712 0.44972223 4292269772
-1.0810699 3.8473852 0.4125275 4292335564
-1.0025898 3.8803346 0.42078048 4292072395
-0.8788287 3.9178722 0.43215325 4292137932
-0.82797557 3.9637511 0.42047063 4292072141
-0.72347897 4.024704 0.38890466 4291151309
-0.63638103 4.0471711 0.41105708 4289439908
-0.53317583 4.0923967 0.41502747 4286676088
-0.49021515 4.1129866 0.45767415 4290690490
-0.10785199 4.2225738 0.43277574 4289902781
-0.065664314 4.2775612 0.42640525 4290363073
-0.010868685 4.2758374 0.40892965 4290954696
0.084096789 4.3065228 0.37522745 4291808722
0.18624605 4.3888121 0.4393661 4291742929
-2.7350323 3.1725218 0.38133579 4284177238
-2.6622796 3.1786842 0.37700593 4284309336
-2.5686061 3.2334452 0.37708688 4285953648
-2.4845891 3.3050425 0.3485657 4283586643
-2.3719895 3.3017778 0.37195775 4286216305
-2.314431 3.3508925 0.37013763 4290097315
-2.1791551 3.4261591 0.33261096 4289834139
-2.0944676 3.4261131 0.34519514 4289636763
-2.020942 3.4475579 0.36153126 4289373594
-1.9156741 3.4987273 0.35414332 4289242266
-1.8432335 3.5693727 0.34997579 4289045401
-1.6232502 3.6646652 0.34715474 4287467144
-1.5553895 3.6709371 0.33660367 4287599244
-1.460573 3.7050979 0.33873418 4286349695
-1.3812597 3.7274637 0.36321521 4286813347
-1.2688901 3.7672491 0.35133961 4286485158
-1.1952044 3.8155258 0.32254675 4285957778
-1.0717331 3.8229659 0.36460984 4292401360
-0.98872477 3.8923171 0.31088296 4284709785
-0.89600945 3.9426973 0.32103679 4289048247
-0.81757736 3.9402006 0.33086294 4289245114
-0.72009605 3.9877303 0.36333391 4289572551
-0.65997523 3.9955406 0.36334255 4288912541
0.05989071 4.2982464 0.34489027 4291742930
-2.7403805 3.1687658 0.28353146 4284637792
-2.6598625 3.1761773 0.28639913 4285229926
-2.5749223 3.2426445 0.2876707 4285822059
-2.4791884 3.3066826 0.26492804 4284506974
-2.3961718 3.3247156 0.27557829 4287071355
-2.3003066 3.3616428 0.28089052 4290623144
-2.2093163 3.3598237 0.28754318 4289965471
-2.1380463 3.3797143 0.30835688 4289965471
-1.9856579 3.489361 0.26979932 4290754989
-1.9462712 3.4986389 0.26363572 4290755245
-1.6626979 3.6574686 0.3013716 4289965987
-1.5521953 3.7011762 0.26391041 4290163364
-1.4735636 3.7074704 0.24298148 4290097571
-1.3679117 3.7295651 0.2365181 4289900450
-1.2878872 3.8014836 0.24510722 4289505695
-1.190524 3.8325989 0.24625959 4288650645
-1.0957495 3.8459301 0.23846318 4288322197
-1.0174899 3.900697 0.22842978 4288454039
-0.90830487 3.9453905 0.24994218 4286416521
-0.80721027 3.9614751 0.23571785 4286350731
-0.74808764 3.9679062 0.21236062 4286810765
-0.62274176 4.0514083 0.2028442 4285823615
-0.56766325 4.0867152 0.19816656 4285231992
-2.8178315 3.1306176 0.15178856 4287992459
-2.754602 3.1561739 0.16696365 4285427307
-2.4662969 3.2952898 0.1795845 4285954164
-2.4001639 3.3303623 0.17278986 4288650645
-2.3181126 3.3425002 0.19533096 4290558122
-1.9169846 3.5134666 0.15720791 4290885543
-1.869047 3.5563006 0.11683794 4294498492
-1.74956 3.6325734 0.11433633 4292656552
-1.5448021 3.7018979 0.1464721 4290030490
-1.4974043 3.6840901 0.14677081 4290491558
-1.2764322 3.7689073 0.14821427 4290294951
-1.1952443 3.8285515 0.13858423 4290229159
-1.1068413 3.8663023 0.14712991 4290098087
-1.0529609 3.8988895 0.10532372 4290492331
-0.79836208 3.980289 0.12486589 4289637284
-0.73913997 4.0176573 0.12759027 4289308060
-0.64935994 4.0773754 0.12689368 4288781976
-0.57219017 4.0866041 0.13966902 4288321170
-0.22652403 4.1949306 0.073612794 4288321942
-2.8120091 3.1292593 0.092406861 4287465859
-2.7748055 3.1506577 0.086368337 4285755755
-2.4719796 3.3037603 0.077546127 4284373583
-2.3698487 3.3556952 0.073241815 4286412650
-2.3195927 3.317642 0.080827855 4287266669
-1.8308735 3.5588048 0.081854038 4294697408
-1.7533859 3.5807729 0.082967132 4294498235
-1.6479968 3.6156952 0.091770776 4293248430
-1.5528862 3.6539536 0.089303203 4292198310
-1.18036 3.8118162 0.047882639 4290426537
-1.1236769 3.8619668 0.054434229 4290689708
-1.0379653 3.8933663 0.055076584 4290623916
-0.81089652 3.9514828 0.051442791 4290097831
-0.72290123 4.0144258 0.028855959 4289834145
-0.67935312 4.0407662 0.040580764 4289702305
-0.33348981 4.1616035 -0.0072372765 4288847002
-0.26819846 4.2131214 0.011859756 4288716186
-0.23287213 4.2619658 -0.00023322375 4289044892
-2.8283672 3.1613255 0.0043745073 4286347377
-2.7897594 3.1847603 -0.015907617 4284834909
-2.4733436 3.2880316 -0.022803809 4285622875
-2.3868146 3.3258929 -0.016894063 4286018402
-1.2540176 3.7878613 -0.024052974 4286873968
-1.2227422 3.8013973 -0.031104764 4287466102
-0.98048669 3.8990161 -0.069136858 4289505686
-0.92756385 3.9486854 -0.07634405 4290031518
-0.82858765 3.9705472 -0.070939422 4289307802
-0.73363656 4.0202651 -0.064005338 4290492847
-0.658153 4.0556784 -0.072700046 4290821041
-0.5610404 4.0926695 -0.076227874 4290360750
-0.47125068 4.1466632 -0.067077048 4289965735
-0.36580887 4.1738462 -0.0682991 4289439394
-0.2718358 4.2022057 -0.045230251 4288979100
-2.7736473 3.1489148 -0.099213317 4284505689
-0.45079556 4.1443424 -0.20795442 4282009675
-0.38538092 4.18818 -0.1784935 4284900701
-0.43739235 4.1370406 -0.25222933 4282732881
-0.41333637 4.1456432 -0.25649673 4283257161
-2.5209947 3.2585664 1.7337437 4284770159
-2.4810083 3.2527218 1.7332896 4284373860
-2.3299508 3.3770187 1.7344255 4286152839
-2.2725477 3.3939381 1.73998 4286942353
-2.1634436 3.3950863 1.7287624 4288717476
-2.0730727 3.5060933 1.71653 4289572010
-1.960658 3.4934235 1.7171234 4289506219
-1.9064875 3.5452151 1.7295737 4289506734
-1.8086301 3.5651789 1.7183944 4289506990
-1.713097 3.6174843 1.7197506 4289637806
-1.6295924 3.664155 1.7259099 4289768878
-1.5183355 3.6681216 1.7129489 4289506476
-1.4511347 3.7485697 1.7160674 4289310125
-1.3799288 3.7785161 1.7141813 4289309869
-1.1279484 3.8216879 1.6986067 4289310125
-1.055113 3.8657529 1.6989648 4289178795
-0.98344165 3.9413078 1.7091041 4289309869
-0.89595228 3.9668486 1.7033838 4289112748
-0.82553816 3.9753349 1.7016938 4289178029
-0.59461558 4.077971 1.6941092 4288914599
-0.5186221 4.1247034 1.694677 4288783014
-0.43604562 4.1753216 1.6916246 4288454564
-0.33724529 4.2150145 1.6924628 4288257441
-0.27805731 4.2187939 1.6930795 4288322468
-2.5341547 3.2717645 1.6685598 4284507754
-2.4689517 3.2663085 1.6680133 4283389016
-2.3277791 3.3452961 1.673052 4286020994
-2.279408 3.403116 1.6478049 4287336596
-2.1847253 3.411309 1.6510297 4288783525
-2.0970893 3.4534225 1.6735983 4289440426
-2.0018678 3.4890432 1.6786714 4289703595
-1.9115765 3.4945102 1.6806066 4289638062
-1.7811421 3.5628994 1.6777997 4289703855
-1.717795 3.6248114 1.6588118 4289704112
-1.6366508 3.6606603 1.6463031 4289704112
-1.5385891 3.709089 1.6150849 4289638576
-1.4357439 3.7218349 1.6301874 4289507247
-1.3402727 3.746907 1.6447766 4289375918
-1.27127 3.8092093 1.6382819 4289441711
-1.1557333 3.8507063 1.655483 4289375918
-1.0674773 3.8807628 1.6575853 4289375917
-0.97969222 3.9185648 1.6377285 4289441710
-0.89093089 3.9632852 1.6379986 4289310382
-0.57524478 4.0843496 1.6339974 4288981163
-0.50540823 4.1695948 1.6064715 4288981418
-0.43613118 4.1451073 1.6276499 4288586662
-0.31535807 4.1906877 1.6200449 4288454821
-0.24808362 4.2418671 1.5955778 4288652198
0.16356844 4.4160142 1.5680034 4288059807
0.23316818 4.4223208 1.5900999 4287796891
0.29402319 4.4288893 1.6219585 4287467671
-2.6267657 3.2525446 1.5859281 4286349958
-2.5434606 3.2963531 1.5694739 4284047970
-2.482923 3.2754257 1.5716708 4283521626
-2.3458807 3.3511364 1.5750959 4286416009
-2.2909498 3.4009976 1.588002 4287468181
-2.1671524 3.4375899 1.5903466 4289375661
-2.0905042 3.4731371 1.5817627 4289704111
-2.0104749 3.5005691 1.5389371 4290032818
-1.7835839 3.5595818 1.5678833 4289902002
-1.7309302 3.6117878 1.5716667 4289836466
-1.6139596 3.6658442 1.539919 4289836467
-1.5756917 3.708271 1.522723 4289836468
-1.4377034 3.7458122 1.5693119 4289704882
-1.3604723 3.7712412 1.5769634 4289639089
-1.0714029 3.9230037 1.5197777 4289836468
-1.0092461 3.9407203 1.517509 4289705396
-0.87741083 3.9847324 1.5164551 4289639604
-0.83310843 3.9876204 1.5606124 4289376432
-0.57361096 4.0768385 1.5464727 4289310385
-0.55644572 4.1258373 1.5288326 4289310384
-0.43247494 4.1792483 1.5363574 4289178799
-0.3487615 4.1904249 1.5215861 4289113006
-0.22432482 4.2283306 1.5360402 4288849578
-0.18487644 4.2264442 1.5411292 4288717993
0.14020488 4.3842211 1.5211192 4288323491
0.22049052 4.4330044 1.4832207 4288520614
0.28830534 4.4779987 1.5229596 4288060065
-2.6284389 3.2419655 1.4923189 4286416009
-2.5642438 3.2718508 1.4927187 4284705902
-2.3753123 3.3509982 1.4620608 4286284938
-2.2611556 3.4152067 1.4715426 4288652455
-2.1906123 3.4242198 1.4902121 4289573040
-2.0914237 3.4686899 1.4524558 4290033330
-1.993395 3.5116558 1.4539213 4290033844
-1.9052267 3.5451946 1.4145392 4290100148
-1.8467239 3.5761211 1.41318 4290100148
-1.6012772 3.6635039 1.4509346 4290034101
-1.5574979 3.7202611 1.440312 4290033844
-1.179376 3.8898852 1.4163461 4290099894
-1.0778141 3.9147935 1.4334012 4290034103
-0.98953027 3.9398706 1.4390026 4289968311
-0.90370822 3.9677155 1.4272476 4289902775
-0.50098097 4.1392317 1.468076 4289508276
-0.42647567 4.1606178 1.4561729 4289507764
-0.36476094 4.1566544 1.4505235 4289376178
0.23597197 4.4241743 1.3818378 4288981166
0.28467578 4.4686317 1.3690749 4288980910
-2.3617852 3.3423157 1.3826344 4286613900
-2.3013039 3.3986297 1.3656493 4288323745
-2.1785424 3.4056897 1.3551309 4289967795
-2.1219661 3.4360659 1.3630767 4290099380
-1.9958838 3.5135283 1.364409 4290165685
-1.9340459 3.5552874 1.363094 4290231479
-1.8161029 3.5857129 1.3627744 4290231734
-1.7437581 3.5903854 1.3381182 4290231480
-1.5205522 3.7085867 1.3675519 4290296503
-1.456992 3.7417095 1.3459964 4290297016
-1.3715088 3.7947526 1.360117 4290231480
-1.2767961 3.8253093 1.3612772 4290231480
-1.184818 3.8590584 1.3654851 4290231480
-1.0922354 3.8662527 1.3641388 4290231480
-0.98480892 3.9371419 1.3413829 4290231481
-0.89024305 3.9839439 1.3414055 4290231226
-0.82788807 4.0124025 1.3033868 4290165947
-0.26089147 4.2518387 1.3165549 4289771192
-0.15118358 4.2906337 1.3447789 4289639350
-0.1148059 4.3255749 1.2892592 4289836472
0.067051843 4.3487654 1.2680646 4289836474
0.099339031 4.3725305 1.2781643 4289704888
0.25405741 4.4238906 1.3204012 4289244083
0.287009 4.4831619 1.3168416 4289244083
-2.3800709 3.366709 1.2733598 4287337878
-2.2870712 3.3977067 1.2723161 4288915881
-2.1850395 3.4444821 1.2801638 4290230708
-2.1058595 3.4776371 1.2705733 4290362294
-2.017828 3.5230453 1.2650504 4290428087
-1.9433873 3.5296965 1.2593337 4290428343
-1.5186095 3.6878409 1.213493 4290494392
-1.4493883 3.7448041 1.2002178 4290559672
-1.352533 3.7961273 1.2146575 4290625465
-1.2875208 3.8401997 1.2299364 4290494393
-1.2142411 3.8567343 1.2027225 4290428857
-1.057968 3.9078872 1.2147563 4290428857
-1.0125327 3.9383841 1.2290369 4290363066
-0.91852087 3.9921381 1.2361684 4290363066
-0.81553227 4.0246472 1.2199062 4290363067
-0.71608454 4.0463243 1.2295622 4290231740
-0.64188582 4.1051989 1.2269983 4290297276
-0.54742795 4.1295748 1.1981491 4290165947
-0.2333408 4.2247896 1.2376778 4290034362
-0.16365241 4.288166 1.2251736 4289968314
-0.098508149 4.2899823 1.2432464 4289902522
0.065803096 4.3499956 1.2395314 4289902266
0.090625308 4.3767748 1.2380497 4289836473
-2.4048064 3.35853 1.1621085 4287600024
-2.2753589 3.4001856 1.1773705 4289573296
-2.1890259 3.4492314 1.1518838 4290362551
-2.1065116 3.5162292 1.1658622 4290493879
-2.0712383 3.5420518 1.1439002 4290625464
-1.8999938 3.5614338 1.1614172 4290691257
-1.7284491 3.6279655 1.1731277 4290625721
-1.6611241 3.638761 1.1878806 4290625465
-1.4342115 3.7317588 1.1846195 4290559672
-1.3769135 3.7793634 1.1760914 4290691257
-1.2763186 3.8373394 1.1687728 4290691258
-1.1790841 3.8533638 1.1659006 4290691258
-1.0907801 3.8979597 1.1526299 4290494650
-0.99525833 3.9680824 1.1045042 4290625980
-0.92047083 3.979846 1.1283822 4290494652
-0.81444693 4.0257082 1.1436089 4290494652
-0.73368788 4.0715342 1.1362423 4290494653
-0.64195114 4.1035843 1.0871599 4290560445
-0.5336169 4.1587791 1.1082377 4290363069
-0.46680215 4.1603694 1.1022403 4290297533
-0.2325701 4.2388816 1.101981 4290231487
-0.18121018 4.2992897 1.1015503 4290297023
0.02028719 4.3576446 1.0887793 4290165695
0.29049549 4.4497457 1.1480768 4289902267
-2.3864062 3.3871393 1.0744272 4288060059
-2.2936215 3.4119406 1.0677576 4289638831
-2.1995542 3.4513965 1.0448719 4290559672
-2.1116979 3.513166 1.0730557 4290625465
-2.0292337 3.515552 1.0760887 4290691513
-1.9529746 3.5668411 1.104944 4290823099
-1.720645 3.6151721 1.0187162 4290888892
-1.5972233 3.6664863 1.0250742 4290888892
-1.1411783 3.8594251 0.99434119 4290888892
-1.0916672 3.9146843 1.0400957 4290823100
-1.0106837 3.9663439 1.0718154 4290626236
-0.92768884 3.9862792 1.0235815 4290822844
-0.73368758 4.0260954 1.0600693 4290626238
-0.51565117 4.1417947 1.0251508 4290560190
-0.45458287 4.1852803 1.023419 4290494655
-0.15380481 4.269938 1.0452052 4290494145
0.022768009 4.3754735 1.0175303 4290494659
0.075992957 4.4196777 1.0218294 4290494403
0.21188173 4.4283915 0.95965827 4290691269
-2.3576851 3.3669903 0.97960901 4288257694
-2.3023074 3.4113896 0.94388121 4290033330
-2.2356007 3.4319904 0.99397433 4290625208
-2.1274235 3.491745 0.97206289 4290691513
-1.1420108 3.8602452 0.97531915 4290888637
-1.0906613 3.9027934 0.96433991 4290888637
-1.0184189 3.9830017 0.96891022 4290888637
-0.92523664 3.9647832 0.97286254 4290888637
-0.71002626 4.0576286 0.92911285 4290757823
-0.66922611 4.0613933 0.9251135 4290757824
-0.49183908 4.1336446 0.95865333 4290625984
-0.4742668 4.1410336 0.95820284 4290691777
0.13852341 4.4301929 0.87203342 4290823110
0.19882241 4.4685192 0.91519004 4290757062
0.24045759 4.4900031 0.88817555 4290757318
-2.3410835 3.3618827 0.91083813 4288520609
-2.2970855 3.4153636 0.8927303 4290033327
-2.2160687 3.4604344 0.858845 4289901999
-2.1268373 3.5027323 0.85249454 4290362292
-2.0632582 3.4833901 0.82754314 4290691513
-0.97294879 3.9406986 0.81863868 4291086016
-0.95496023 3.9476776 0.82769924 4291151809
-0.61529285 4.1188664 0.79931307 4291019969
-0.55627269 4.1675372 0.81463271 4291019970
-0.5048877 4.1917682 0.80744386 4291019715
-0.059361234 4.3516927 0.80044407 4291086282
-0.015459141 4.3940754 0.79661059 4290954696
0.13659801 4.4037557 0.84732777 4290823110
0.18439889 4.4740987 0.81012988 4290888648
0.2455626 4.4911141 0.81426984 4290888903
-2.1756587 3.4376857 0.80503327 4289310375
-2.1104331 3.4750383 0.78912091 4289704617
-2.0300035 3.5304227 0.76750326 4290165168
-1.9479877 3.5855019 0.76459342 4290823355
-1.8635718 3.6247249 0.75040019 4291283647
-0.98339975 3.9386444 0.78081983 4291217601
-0.8145867 4.0416603 0.69707066 4291414981
-0.75908351 4.0823116 0.70845652 4291283395
-0.6172834 4.1187348 0.73266977 4291151555
-0.55852765 4.1730647 0.7166636 4291085763
-0.50441498 4.1686683 0.74477303 4291085507
-0.15750213 4.3177886 0.68311465 4291086536
-0.10571221 4.3653636 0.7037853 4291086536
0.00182211 4.3807197 0.74518806 4291020489
0.22029647 4.4448028 0.74996549 4291020234
-2.2657099 3.4111316 0.62325555 4292399551
-2.2312229 3.4238126 0.65199459 4289175954
-2.0254271 3.5288243 0.66419798 4287992970
-1.9496527 3.5561137 0.67629755 4289244328
-1.8665888 3.5736969 0.69872004 4291283648
-0.81514323 4.0298619 0.66437012 4291414982
-0.73358023 4.0811958 0.63195139 4291414727
-0.65436882 4.1290555 0.63219875 4291283141
-0.57489282 4.1166644 0.66878396 4291151555
-0.24448952 4.2604761 0.58096737 4291020742
-0.19629335 4.3172431 0.60945255 4291152072
-0.11404987 4.3566389 0.64166903 4291217865
0.11295184 4.4242287 0.61805522 4291152076
0.16636622 4.4776373 0.61108601 4291217612
0.23251854 4.5012312 0.5777145 4291283406
-2.2976906 3.4149644 0.56375843 4289704371
-2.2401841 3.4230356 0.60355788 4292596416
-1.6471107 3.7003477 0.53893316 4291875530
-1.5959536 3.7245462 0.53072768 4292072909
-0.75502795 4.0973864 0.53987557 4291743432
-0.66841507 4.121242 0.51900113 4291546053
-0.52102131 4.1500449 0.49283886 4291282626
-0.49466288 4.161129 0.49216321 4291151040
0.18951958 4.4637179 0.51635784 4291414734
-2.5536728 3.3287377 0.44274095 4282269240
-2.5161386 3.3259404 0.44960871 4282270010
-2.311501 3.4333539 0.47408882 4286546048
-2.2313585 3.4789295 0.47207668 4287335050
-2.1458952 3.5251579 0.46808547 4287337107
-2.0646691 3.5431571 0.45281073 4287008144
-1.9322493 3.5982609 0.44043496 4285100927
-1.8697507 3.6121376 0.4303059 4284838782
-1.7598715 3.6679325 0.42290106 4284774018
-1.6788427 3.7191844 0.45787093 4288852154
-1.6241961 3.7688 0.50162959 4292007373
-1.475354 3.8361597 0.42017594 4291285713
-1.4296323 3.8134151 0.43930674 4292073168
-1.1029854 3.908253 0.46014789 4292335308
-1.0244017 3.9580326 0.4669508 4292203724
-0.96432734 3.9738867 0.44779798 4292072395
-0.8250587 4.0689783 0.44621974 4292006349
-0.75347108 4.0994091 0.41940975 4291151046
-0.66263103 4.1200013 0.45815274 4291611589
-0.56214249 4.1415429 0.45282352 4291085247
-2.7462344 3.2258434 0.36261788 4283980117
-2.5549295 3.3299761 0.41402504 4282532671
-2.5179513 3.3471646 0.38640425 4283454286
-2.3171346 3.4476888 0.37729463 4288649615
-2.239867 3.4896417 0.36525866 4289439384
-2.1445508 3.5149968 0.39716688 4288584590
-2.0594099 3.5377548 0.41090608 4287664521
-1.932375 3.5929382 0.37893215 4287532682
-1.8670019 3.6348841 0.36289999 4287993488
-1.7872136 3.6703134 0.34501907 4288716695
-1.6705949 3.7058711 0.35524195 4287467917
-1.5801992 3.7397852 0.39014521 4284904833
-1.5131834 3.7872353 0.39041641 4286352022
-1.4228042 3.8307934 0.32578668 4287138954
-1.3134699 3.8645597 0.32530814 4286153351
-1.2414368 3.859396 0.31134987 4285561218
-1.0051011 3.9999139 0.29853919 4284905866
-0.9555375 4.0191889 0.29821962 4285235349
-2.7622654 3.2210526 0.33128986 4284045910
-2.5639026 3.3201368 0.29207295 4283586131
-2.534888 3.3457227 0.29441178 4283717973
-2.3872411 3.3877494 0.24889681 4289439386
-2.3415809 3.4100323 0.25015023 4290097316
-1.9995394 3.5441222 0.2736522 4290820782
-1.9826586 3.6037679 0.26487926 4290820782
-1.8538851 3.6623607 0.27518114 4290426537
-1.777932 3.6713159 0.25613058 4290426537
-1.6787994 3.7048769 0.25658071 4290294951
-1.6031247 3.7335846 0.24010243 4290426794
-1.4592708 3.7693567 0.29154244 4289374107
-1.406514 3.8085482 0.27850449 4289505950
-1.2912432 3.84584 0.23658477 4289702817
-1.2372295 3.8676016 0.2065035 4290163623
-1.0874496 3.9299996 0.21218587 4289637281
-1.0181701 3.9697299 0.25883973 4286941832
-0.97236449 4.0205464 0.25958866 4286481285
-0.60504621 4.1340218 0.18077707 4287072386
-2.8408792 3.1996982 0.14287128 4286479735
-2.4367185 3.3696492 0.13251144 4289966249
-1.9373509 3.598304 0.18406276 4290162079
-1.8821276 3.6694481 0.13912597 4290225041
-1.779335 3.6946018 0.15202206 4291280043
-1.6898807 3.731195 0.15773016 4290359199
-1.6054413 3.7422669 0.15007462 4290294179
-1.1176392 3.9354446 0.10711149 4290426795
-1.0748723 3.9423101 0.097603261 4290558124
-0.68626171 4.1028795 0.13389018 4289044891
-2.8504977 3.1968238 0.12407447 4286676857
-2.4915419 3.3819618 0.063311718 4284834134
-2.461112 3.4170289 0.078785621 4285952358
-1.8490469 3.6454475 0.092519023 4294697153
-1.8137375 3.6327848 0.097499222 4294695874
-1.1131283 3.9495592 0.072268762 4290623916
-1.0828046 3.9678502 0.069704048 4290558123
-2.8391693 3.2103646 -0.019041184 4285163361
-2.8215971 3.2177539 -0.019491609 4284703324
-2.5060554 3.3913708 0.00059584802 4285820512
-2.4642928 3.4201791 0.0058447048 4286281576
-0.64389199 4.135241 -0.10387773 4291149747
-0.59184569 4.1625643 -0.10533908 4290886838
-0.49836108 4.2462568 -0.0978553 4290492081
-0.4224773 4.2645516 -0.091262534 4290097323
-0.93160301 4.0426235 -0.1163044 4286742642
-0.905132 4.0537543 -0.11698296 4287137400
-0.65256619 4.1871548 -0.12421519 4292529339
-0.61816555 4.2106848 -0.12534973 4291018677
-0.42127237 4.2725878 -0.15857401 4286941060
-2.3176315 3.4655449 1.7694606 4286941840
-1.6979756 3.6901798 1.73747 4289638063
-1.4427397 3.8034928 1.7483982 4289244588
-1.409539 3.8114684 1.7300766 4289310124
-0.54187435 4.2018905 1.7002076 4288783784
-0.50502843 4.2349625 1.693987 4288849320
-2.6313348 3.3193054 1.6395355 4285494392
-2.6154532 3.3395829 1.6475554 4284902510
-2.3025661 3.4433155 1.6987048 4287205011
-2.1307428 3.5432227 1.687384 4289637804
-2.0606563 3.5406728 1.6979253 4289769388
-1.7215446 3.6980314 1.6328231 4289901234
-1.6551176 3.7256043 1.6254723 4289835955
-1.5652841 3.7703428 1.6132481 4289704882
-1.5047997 3.7786148 1.6152991 4289770675
-1.2868886 3.8922942 1.6242476 4289639089
-1.2055426 3.9343331 1.624233 4289639089
-1.1172392 3.9782398 1.6291634 4289639346
-1.0272093 4.0189366 1.6192701 4289508018
-0.93948025 4.0702796 1.6166255 4289508018
-0.53908759 4.2076192 1.6259789 4289047212
-0.4948369 4.2260699 1.6784486 4288783527
-0.27015901 4.3065834 1.5936249 4288784041
0.19370466 4.5293236 1.5738605 4288323236
0.23170429 4.5658984 1.5679374 4288257443
-2.6544566 3.3252082 1.5738125 4285626748
-2.6093366 3.3336031 1.6027763 4284836975
-2.3844051 3.4443593 1.5706581 4286876816
-2.3070905 3.4585679 1.5725974 4287863452
-2.2258532 3.5024197 1.5697563 4289638319
-2.1309762 3.5623112 1.5591486 4289901746
-2.0646012 3.5618362 1.5563767 4289967281
-1.703954 3.6960702 1.6008675 4289770675
-1.6588857 3.7150214 1.5997123 4289770676
-1.559792 3.7803361 1.5509404 4289771187
-1.4904284 3.8272762 1.5460997 4289836723
-1.4049081 3.8796883 1.5763177 4289770675
-1.3022417 3.9299388 1.5669535 4289836467
-1.2202927 3.9673905 1.5493413 4289902260
-1.1389939 3.9686532 1.5467244 4289902260
-0.99743843 4.0135722 1.5569285 4289639604
-0.93282908 4.0625963 1.5609035 4289705140
-0.53714091 4.2167368 1.541939 4289310384
-0.48026863 4.228816 1.5361708 4289310384
-0.28881219 4.291142 1.5645933 4289046956
0.17915964 4.4963298 1.5307094 4288454822
0.2649686 4.5415359 1.5408466 4288191651
-2.646497 3.3069313 1.5078084 4285429627
-2.3941662 3.453614 1.4750022 4287205781
-2.3308482 3.4690039 1.4817088 4287995295
-2.1769335 3.5031836 1.5153086 4289770675
-2.1232789 3.5263457 1.5041652 4289902260
-2.0601833 3.5528779 1.5025479 4290033588
-1.9310923 3.6587 1.4263026 4290165686
-1.8867079 3.6589096 1.4191737 4290231734
-1.5602859 3.77966 1.4825822 4289968308
-1.4896252 3.8395495 1.4553819 4290099637
-1.4230307 3.8932235 1.442621 4290099894
-1.2957915 3.9203658 1.4467176 4290099894
-1.217955 3.9151506 1.4637961 4290033846
-1.1192981 3.9579401 1.4783388 4289968053
-0.94700217 4.0444312 1.3986028 4290231226
-2.3614767 3.4315853 1.4223562 4287600282
-2.3344357 3.4429564 1.4216632 4287995295
-1.9382349 3.6218369 1.395515 4290231479
-1.875167 3.6366806 1.4001225 4290231734
-1.4875804 3.7996619 1.3901876 4290296759
-1.3789897 3.8447244 1.3971723 4290165687
-0.9304136 4.0532646 1.3443829 4290297019
-0.86383778 4.1114531 1.3196332 4290231739
-0.25428331 4.3333173 1.3434044 4289836729
-0.19622128 4.390388 1.3358414 4289836472
-0.14699136 4.3934875 1.3254209 4289836472
-2.4091873 3.4622974 1.2574883 4287863707
-2.3071346 3.4843462 1.2405536 4289704879
-2.2415574 3.5225008 1.2579293 4290296501
-2.1210744 3.5431805 1.2452494 4290493879
-2.0674968 3.6140378 1.2290963 4290428599
-1.9835596 3.6446812 1.2290285 4290625465
-1.3604892 3.8645098 1.2013327 4290691258
-1.3088424 3.8854265 1.2130331 4290691258
-1.0720527 3.9857984 1.1939392 4290494906
-1.0338515 4.048532 1.2198945 4290428858
-0.93493819 4.0682168 1.2198536 4290428859
-0.85256577 4.1010194 1.2746843 4290362811
-0.67618012 4.1884422 1.2116123 4290297533
-0.57702798 4.2363482 1.2159653 4290231740
-0.18444547 4.3530374 1.2688699 4289968058
-2.4187548 3.4598458 1.1783669 4287995036
-2.354552 3.450105 1.1682038 4288784294
-2.2380099 3.5189245 1.2103621 4290296759
-2.1639645 3.546073 1.1814723 4290493879
-2.0649717 3.5980256 1.1593381 4290625720
-1.9815376 3.6513782 1.1744726 4290757050
-1.0746149 3.9883227 1.1353953 4290691258
-1.0417093 4.0403132 1.1539299 4290494650
-0.93229753 4.062427 1.1753746 4290428859
